# .PCD v0.7 - Point Cloud Data file format
VERSION 0.7
FIELDS x y z
SIZE 4 4 4
TYPE F F F
COUNT 1 1 1
WIDTH 1561
HEIGHT 1
VIEWPOINT 0 0 0 1 0 0 0
POINTS 1561
DATA ascii
-3.0313208 3.0788465 18.390392
-4.4074407 -2.3015897 -10.255507
-4.5172553 -2.1015754 17.710407
6.0305614 -0.45735207 20
-3.1609125 3.864944 -6.3942385
-7.7915487 -1.0478872 26.826344
-6.3321648 4.6462526 23.166298
4.2899933 -2.4470158 4.8718204
3.5419757 4.4507809 20
1.1536756 0.20400359 -20
-1.4195116 -3.7554443 25.8365
1.4071143 4.1970525 6.0595565
4.1653175 -2.5957453 -1.112288
-3.7709923 -2.0636387 -5.2200494
-4.9123645 0.38647762 -15.211435
-4.668222 -1.4624242 -12.345835
3.850208 -1.7508821 -13.717503
-4.9341187 0.28462297 7.4986615
2.8324194 -3.8449414 -9.6690464
-5.4646754 -2.0496497 20
0.42160425 4.5911856 -9.0025082
0.41630584 -4.5192223 5.7131958
-4.2546163 0.58849025 -12.948201
-3.8735166 2.338624 27.377071
-5.3031144 -4.1220088 20
2.4243333 -2.6264164 24.999998
4.2127333 6.3268142 20.739954
-1.8312743 4.530633 14.382273
-4.4507141 -2.2245636 9.1531715
-2.8238101 -3.6454329 -7.9375601
2.4777994 4.2164769 15.916491
-6.7511301 -1.0875778 30.000002
1.0935129 -4.3015461 -13.812049
4.7241344 0.595281 -1.2547251
2.1008539 -3.9213724 -6.5384235
3.9620662 0.054397829 29.940418
3.0934029 -3.9237664 11.227872
0.96932209 -4.2319751 -17.001066
3.5342431 3.4231105 -3.8634553
-4.3511944 -4.2056642 30
1.3464873 -4.1776819 -9.5122604
2.701565 -5.0346513 30
2.5798714 4.168066 11.175415
1.0781896 -4.4118958 -5.1138301
-0.56353879 -3.4058561 25
-4.1769438 1.695505 -17.303864
-7.6222801 -1.900537 26.82679
-7.6824255 -1.5991145 28.40119
4.7934556 -0.40934625 -16.289883
-2.8077004 -2.9539733 29.398951
0.13532096 -4.2942495 -11.047473
-3.8381209 6.8721733 24.299519
4.5839453 -2.0979285 20
4.563417 -1.5354779 -14.08715
2.1098666 7.3522215 29.617807
-0.48537663 4.8207493 10.373641
-2.4913015 -3.4633884 -5.1755495
-4.409647 -2.344511 19.669191
4.7174187 0.80451387 6.2898574
4.7258153 -0.95493543 18.224625
3.9163051 2.2202234 8.8386965
7.4060769 2.9899266 27.151562
-4.1736555 -1.352972 11.096483
-1.0557888 4.8045874 -14.308623
-2.7666116 -4.2203064 30
-2.887481 -7.1755805 21.194115
4.3187499 2.4025505 -9.9988928
7.7102642 -0.19972724 21.363546
-0.39180058 7.4638743 20
-4.9780025 -0.095194101 16.40871
7.863565 0.68582809 23.37953
0.93554938 4.8829322 2.452467
4.3558145 1.2954216 7.2351265
-4.5761976 6.3787146 28.183311
-3.3878345 -1.1565576 25
0.83149248 -4.8797798 -2.9754002
-4.6568489 -1.177356 1.8586581
4.9340587 0.289186 18.464464
-6.8491726 3.872704 23.755165
-3.5404286 -3.0783978 -4.8993707
-3.0870481 -3.7234879 2.6927218
2.6219449 3.9796395 13.939214
3.4212332 3.5763917 -3.8090134
-7.4987974 0.39685372 29.813196
-2.904844 3.1867976 -10.029403
4.8763089 0.54595101 8.1223068
0.6381911 -4.4270725 14.669527
-0.75451779 -4.8699384 3.4831789
2.3461146 -1.8114628 25
-4.7560811 -0.3916989 -1.1870607
3.4776831 2.8350952 13.72402
-0.62037981 -4.8754139 -2.9978051
0.93970627 -4.2213612 -16.904598
-3.6412532 7.0037479 24.815876
3.6579108 2.2948072 -7.4322701
4.8691316 -6.1832809 23.690983
-4.8850784 -0.50664932 13.276348
-4.2341628 2.5080564 -5.9670391
0.16847929 -4.8765564 16.681446
-4.8871961 0.34409899 -17.809475
2.9784884 -3.9294314 -1.436285
-3.3048701 -3.310463 -18.409145
0.96299553 4.2631793 -13.380882
2.9920342 -3.1620679 14.602679
3.8224885 -6.8828139 26.647007
-0.64414775 4.8745351 13.089325
-3.9620662 -1.7094712 25.26726
-4.4224215 2.0340786 -4.3367891
0.68621016 -4.4582586 13.202947
2.5846825 4.1612926 17.123667
4.197485 2.564096 -2.4851956
-1.8616264 4.3964977 6.7065253
3.9620662 0.48741245 28.456163
0.75822628 1.4311855 25
-4.6321831 1.7982957 -3.0985608
-2.4528534 -4.2298932 -1.466699
1.1411418 4.1728115 -19.386246
-1.5229437 4.1663213 10.718409
3.9546165 2.862565 11.037775
7.6953974 0.37053975 29.63722
3.071075 -3.9044371 10.734573
-3.9091325 2.6361046 -0.70705867
-3.4489973 -3.50319 -4.4809585
-2.8399348 4.024075 8.9753876
-1.7350229 -4.4937797 -16.701675
-0.13528717 -4.8786592 16.781538
-2.4696527 7.5086069 26.230478
-4.894774 -0.46035361 1.3865585
-1.0102262 -4.4109197 5.6113324
-2.1177621 -5.5842338 20
-1.6791183 -7.6659808 24.018854
3.4562743 3.478436 -4.8755517
-1.0246198 4.8405714 20.053694
1.9838116 4.2294445 -11.549752
3.9276962 -2.243403 14.587283
-6.4348598 4.0511217 20.568577
2.8327537 3.9349029 -13.032852
-4.050302 3.0427852 30
0.14298359 -4.8727541 -0.92449379
0.74886626 -4.3507743 16.141401
-4.6044416 0.39503819 6.860755
-5.5755663 -1.1356835 30
7.6897421 1.5598162 25.910093
2.8885193 3.2094548 -4.4773641
-4.5761309 -1.4918085 -10.920776
0.71782917 4.8112779 -3.8964014
-2.1560385 -4.2914166 2.7243538
4.0883498 -2.6429663 10.607632
-3.7574625 3.1055508 16.499046
4.5773611 1.85404 -1.1020616
2.8808041 -3.5001705 7.3403997
-1.0262907 4.5701408 9.0446835
3.238826 -7.272891 28.863882
-5.3130746 5.8865881 22.685467
1.0533621 -4.8736053 10.798265
2.4566157 4.230072 14.182474
-4.6152005 1.4982613 -2.0890038
3.3439598 -3.2088723 2.4553967
4.7306709 1.1745888 12.923403
4.1619968 2.6014507 -17.042822
-3.3155799 3.6726041 2.7283356
-3.7689581 -2.2864282 -18.631216
-6.3613138 -4.1611681 20.377739
5.8224673 0.92807579 20
-4.9250884 5.8508835 21.753872
-0.67611915 4.5681586 -5.9535313
-4.5793362 0.88165158 -12.636188
-4.1904192 -0.9628076 8.2142591
-4.3528724 -2.3769372 1.2912576
-1.8537459 -4.3211665 -18.881111
-3.3157206 3.1953855 19.698578
-3.8658834 1.8533628 -11.447721
4.7113214 -1.2154213 -14.205039
-3.614639 3.2833996 14.931451
2.6624129 1.0238583 25
-0.70928586 4.8720241 11.473775
4.4135699 0.12132669 13.273513
-3.291533 -3.5861042 19.386868
-2.1391835 4.0337925 -1.3594121
1.5165408 4.7053437 19.113184
1.2044278 4.8280458 13.174971
0.99065101 -4.6119738 -12.173436
1.3823035 7.5597143 29.67247
-2.9843388 3.0701318 13.973373
-3.9832034 -2.1654935 -0.93444526
4.1881518 -0.97378886 19.259789
-4.6331282 -1.6119394 -7.2868667
3.6677747 -2.6571734 11.524355
3.7887001 2.2854991 -3.1086431
-3.5851305 -2.4504254 15.832373
5.9477558 4.7559991 20
-3.9143162 -2.9122829 6.3006086
3.9571183 2.7292988 5.6410408
-3.7446115 2.9797137 12.834592
2.0769467 -3.6732287 19.117455
3.8352327 2.2525854 25
1.339133 -4.3255615 -2.1063921
-3.2899649 3.0748248 -14.388113
3.6075013 2.2899039 -16.510017
4.1961994 2.3982689 16.868589
-7.8648953 -0.67963505 28.062798
-3.8599229 -2.329375 -2.0743251
4.2707095 1.7246248 9.1850357
-0.85606068 4.4392872 19.632889
4.5332599 1.9471207 -4.1074328
-4.2968163 1.6703231 -5.6855955
1.8714461 4.5115752 15.660162
4.6620317 -1.057102 3.1518309
-4.4582596 -1.1409099 -16.065201
-4.8695321 -6.1828532 26.117424
7.8816071 0.42730808 29.125259
3.3715854 -2.6284142 26.595301
4.7494607 0.017648593 -10.919452
2.2417212 -3.5918722 -3.3644297
-0.53320682 1.1283633 -20
-4.1297302 -2.4838731 -8.6142578
4.864079 0.16119659 1.7500508
-1.2354802 3.8616951 26.184109
-3.2397144 3.5826807 0.78712755
4.6040778 -1.7321081 6.234416
2.0218596 -5.6298056 20
-7.6901631 -1.5574805 22.914993
-1.5220208 4.4651942 -18.027588
-4.5268459 -2.0485783 1.6965027
3.7422175 -3.1449163 1.8024769
4.3209872 0.30560642 -4.6638494
4.7933264 0.22531448 16.059372
-4.4000702 0.36635435 15.494606
-5.6412678 -5.6665978 27.542545
-2.2327442 -3.2859242 25.105476
3.8750038 -2.963778 -17.54401
-2.0856991 3.3708208 28.603161
3.705312 5.1375599 20
2.706701 -4.0504837 7.5442505
-1.4516882 4.0753956 18.398886
4.8974309 0.42251503 -2.6850576
-1.6444367 4.4565811 -10.513329
3.8617482 2.9793825 -11.271405
2.2819724 -4.7208133 30
3.6143625 -2.4882467 29.392416
-5.4870367 -1.4757184 20
-5.3093696 -0.26913226 30
-0.60703975 -4.5812068 -4.7965221
3.3197696 -3.6007507 -5.9068146
3.0642092 -3.6137559 16.456171
-4.3173428 -0.28606385 -6.9230046
-5.5030479 -5.7593026 25.565372
-4.4129286 -2.3163924 7.7023478
-1.810838 -4.5367064 16.788036
-4.3324375 -1.289706 -15.59922
4.9728432 -5.9795766 29.431345
-4.0215302 -2.7743907 -7.1704865
1.324311 6.2683454 30
-6.1558285 -2.401515 30
6.5472569 3.8829017 21.687309
-2.2579718 0.41221261 25
3.4997184 -3.3741066 0.099478297
4.6200709 -0.32590938 -12.383032
-4.388958 1.0290958 8.2820997
-4.2106495 0.824615 -8.4655485
-4.5039721 -3.6591341 20
0.59061915 4.2643838 -14.730505
4.0804372 2.2255161 -10.749916
3.9620662 -1.1268508 29.374544
-4.2663741 -6.114018 29.825314
4.3126173 1.0594192 -9.2112522
0.44138438 4.7547116 14.079767
-2.5013278 -3.645659 14.476442
-4.6981449 0.89229739 -8.0528536
4.4426079 -0.79790163 -16.488569
-4.3383341 -1.4356143 -6.5934429
-0.79604417 4.8779621 5.8078289
-0.23565948 -4.3014708 17.425833
-3.1227789 -3.7733805 -10.050793
-4.4593582 -0.8413772 4.9403868
3.4353304 3.3425641 1.1908755
3.7091787 -2.9422927 -18.643234
-4.3671327 0.78605038 0.43185723
-1.1926221 4.8261056 -3.1664186
0.81160676 -4.3645716 -18.332201
-3.6931539 -3.1890419 -1.6938841
4.0336537 -2.821507 10.941152
6.2943783 4.7031298 24.585094
-0.67237794 0.56358159 -20
-6.2202411 -4.8143206 25.659355
-3.8440535 2.520216 17.239706
-3.1595073 3.1434031 -14.430465
-2.4729617 7.3626738 22.5
-0.1188845 4.8770943 -11.135265
-1.5067186 -5.4531479 20
-4.5854359 -0.85160673 -4.1159039
-3.9620662 2.1697564 26.347374
-1.2863468 4.2356577 -5.5594339
2.4145293 -0.58450365 -20
-2.4591606 3.6282218 -13.025381
-4.5473728 1.832875 -5.8750439
-0.75601971 4.3177948 12.200165
-0.30276126 -7.6897159 20.077888
-4.6939969 0.95194608 2.4500568
1.3192019 4.7757111 14.313625
-0.030195475 -4.5595436 5.2576199
2.5373096 6.1752076 20
0.065363765 -5.3956623 30
-4.5991111 -1.4846141 2.5487921
-3.0527143 3.1075051 9.5192413
-1.0525519 -4.8769307 18.142036
1.0372105 4.8677664 -0.40497023
0.95749766 4.0669866 30
-5.3683276 -3.5549493 20
-1.3533596 -4.4265251 -3.8101702
3.5292554 3.3878231 -4.890954
0.19156197 -4.4689121 6.8561487
-4.4413772 0.81773508 -8.207777
-3.313391 -3.0210574 8.1076126
1.9056031 -3.823534 -12.362903
2.0171578 4.5834403 30
-2.9383888 3.1516328 -17.51516
-5.12883 4.493958 20
3.6073174 6.9462152 22.5
2.5282357 7.497087 23.41663
-2.8191347 4.0087705 16.490675
0.78500396 -7.5538378 20
-3.025069 -3.7041132 4.1449809
-4.4045906 -2.2937906 -12.187911
0.17455801 4.3627553 7.6513896
1.8112397 4.1774578 -3.0346541
1.7465675 -4.5480947 18.006142
3.8936479 -1.9926618 -4.8111749
-6.5706196 -4.289763 24.662445
2.9089448 -3.7301724 2.3686132
4.5639167 0.95942533 -16.287094
6.7703366 -3.9904981 22.953453
-4.0072403 0.33194089 -20
-4.865303 0.58192474 7.5145216
1.688153 -4.3750181 17.8822
0.16471115 -4.576561 3.7654076
3.4788804 2.6458533 6.114543
3.3782763 -3.32954 6.0124207
-0.37880719 4.8998318 -18.124783
-3.7957706 -2.6568062 -7.0041947
-0.5684877 7.8868852 28.257486
0.68885446 4.2675943 -7.3434029
-2.0412884 4.1951394 7.5692768
2.3868814 3.7460568 16.495516
-3.7984436 -2.9536498 11.671999
0.33351618 -4.6345434 -15.754627
2.7238595 -7.2701406 29.465847
-3.1786923 4.4979644 30
-0.74901843 4.321722 12.198512
0.13011041 4.5128264 16.926777
-4.4748697 -1.2292724 -9.5388317
-4.668541 1.2890127 -18.010998
-1.0726197 4.8789325 -10.866076
-3.9039845 -6.6671095 29.631721
1.4401572 -4.6431818 -15.039431
-1.2051346 4.1258316 10.770731
4.6162276 -0.64965791 -18.465349
3.7574456 -2.5493181 10.416956
-4.8637886 0.66294324 19.148472
-0.014792502 7.6546049 29.593288
-1.4160092 4.0952168 16.758131
0.99730772 -4.1195912 -12.429178
-3.2157145 3.2323365 15.24193
2.427166 4.0567217 10.304224
3.039995 3.9437954 15.543258
1.9081594 4.5463343 -3.2526331
3.04093 -2.8193181 29.077374
3.8107324 -3.0874362 9.2732897
1.4443495 -3.7411041 28.0051
-4.5730009 -6.3808627 28.101677
4.9306598 -0.30588821 6.6770558
-3.9102693 6.6482282 29.642302
0.94723767 -7.8115354 22.853748
0.83087051 -4.2069674 -18.418177
1.6375432 -4.1030693 2.6963551
4.9764271 -0.10398858 6.6496916
-0.68191755 4.8764663 -7.650527
0.19033089 -4.7322655 -1.6421158
-1.3320234 4.0751686 1.8585844
-3.9924517 1.5206823 -5.4409671
2.4315152 0.75905299 -20
3.0675688 3.3768597 1.7593209
-3.7282472 2.4574013 -5.6663876
-1.7301506 4.4194613 15.682589
-4.3841667 1.0445399 12.367388
-0.59310347 -3.7926655 25
-2.7113156 4.099299 -5.0503697
-0.458112 7.6588564 21.455374
0.64565319 -4.8707271 -0.92176259
-1.1618793 -4.7099242 -10.704415
-3.2130888 -4.5766916 30
-3.4352062 -2.565304 -5.1752834
-5.3810906 -5.5248079 20
3.7006919 3.1835334 -17.514954
-2.9577396 -3.6900694 -5.4455504
-7.4635973 -0.98044175 29.730213
-5.6512566 -5.2237501 20.856367
2.957792 3.5474143 -14.695982
-3.9620662 0.86836535 26.492964
-3.3075848 -7.2266984 24.941475
4.6552701 -0.4662908 -12.43187
7.9308648 0.34752649 25.975174
0.040879101 4.2970419 6.3045731
-1.8727595 4.1404419 3.5600576
-4.5934157 -0.024047606 -5.1660423
4.4571896 -6.4201412 29.417793
-1.2635858 4.0881662 10.78624
0.2572414 7.9488201 28.778997
-0.19834435 -4.3532658 8.566618
-3.9620662 1.6087072 27.32271
-0.40063915 -4.3271551 2.413445
-7.6425133 1.8006514 26.283304
3.1172135 -7.0587978 20.125189
1.5911413 4.6364937 2.6699967
-4.6407804 0.21042687 11.348541
3.9620662 -1.8921285 28.455235
4.8718157 -0.56592584 -0.93500799
-0.61528409 4.795557 -17.344791
-1.8371751 3.9107594 -11.723683
0.77188241 7.8464465 25.688757
1.8754926 -4.5106125 -8.8676701
-1.963559 -3.9641731 7.0429354
-1.354435 7.7305546 23.994349
-4.1479154 -6.6650872 23.027916
-4.0729795 -1.4829286 2.1567054
3.2725806 -3.081707 5.5380931
0.395417 -4.8737445 16.569153
-0.077321544 4.8907022 18.913074
-6.5321164 -0.55335313 30
-4.7357664 -1.1568718 -11.873514
1.8037076 -3.5336289 29.746029
4.6690903 -0.66725737 1.0234535
-3.9630101 1.9122765 18.420918
3.149437 -1.9699048 25
4.4774652 -0.68187696 -7.8693013
0.61435473 4.4373779 4.571806
-3.7346091 3.1408525 11.775974
3.4511697 -3.501092 -2.2819993
2.9715152 3.0102181 -2.9394534
-4.4104815 -1.7452016 2.5160336
1.5927496 4.1169057 1.5372794
5.7150855 -5.5700026 24.561703
3.9620664 1.7666467 26.646309
-1.4908298 -4.6846938 -17.793175
-1.0504373 4.8661132 19.195972
-0.12792605 -4.8060398 3.6046984
1.1242852 0.025097877 25
-4.3370123 -1.4798887 17.428272
-4.2115707 0.8797735 0.52010083
4.5206766 -1.6262209 4.6605997
-0.28626156 -7.4265566 20
-3.7463479 -3.0750866 -11.623858
-2.6946146 -2.2815242 -20
-3.3887944 2.8902378 20.142735
-3.9169238 -2.5325315 13.996811
4.1584644 1.4001634 13.539249
-4.4628463 1.0424783 -8.6572008
0.82771474 4.2046971 0.16323057
-6.8545485 -1.8787138 29.966801
0.43380797 -4.4393187 -1.8023062
-4.387054 -1.1877328 -18.608782
-4.3558035 1.8784575 -12.673956
7.6847601 -0.035828412 29.7194
-0.039932773 4.2898741 16.780247
-4.1355219 -5.3942738 20
-7.6369057 0.56845534 22.289448
1.6402612 4.6161356 -4.8009634
-3.9732389 -1.8466245 -17.347834
7.9360127 0.32165089 24.475351
3.9620662 1.1698513 25.414696
1.8187554 4.0540295 -19.228964
4.4168482 5.9269037 20
3.2673039 6.5106382 29.914009
-1.3492974 0.095432341 -20
-2.5841367 3.5792079 9.5095215
2.0454798 4.4223957 1.1666937
-2.6120126 -3.6324906 -18.807228
3.8622525 2.9773126 11.491876
2.2246747 3.7694716 30
4.4957194 1.8158536 -2.6821539
-0.82863098 4.6160622 -18.935175
-0.79190302 4.7337427 2.1250427
-2.6051302 -4.0624881 12.482099
-0.12391214 -4.3579793 -9.4172668
-5.4493351 -5.7954192 24.157055
1.1875682 4.8472219 -17.344337
2.7660432 3.9733887 2.7378068
-2.3540816 3.602355 30
3.7049985 -3.1793945 -17.790363
4.5855279 -1.2388278 -19.391668
0.061192304 4.8809052 0.90151083
0.74471891 -5.2606688 20
3.9620662 -1.7182436 29.362652
-4.3468084 1.7330296 -17.760534
-1.159013 4.2843075 -8.8063326
4.2757387 -1.6921763 -5.9928031
-1.0964093 -4.568203 -6.8159189
-4.7373557 1.1579537 4.1850133
-4.4153352 6.4865985 25.185333
4.4186168 -1.71392 1.6032166
-1.9701965 -4.2649398 16.210535
-4.4683681 -1.6591263 -8.6227322
2.7971954 4.0656748 -11.268874
2.7305231 3.4387407 7.6781502
7.4371619 2.8292639 22.670132
-2.0336766 -3.9153328 -6.4761629
-3.538058 -3.3394246 -19.053375
-1.7340288 4.3570704 -14.964241
-2.6454034 -4.0097046 -13.008175
2.5846901 4.2270851 -2.106806
1.9731485 3.8228998 13.600359
0.82996023 -4.6711407 -7.6638823
1.3129957 -3.142096 25
3.4053314 4.5377226 29.999998
-3.0612774 -3.3680708 -11.36755
4.9072881 0.25478122 -8.0227728
-4.362237 2.1523936 17.371243
2.5121861 3.693131 -4.2476439
-6.9023666 3.7931199 23.841097
0.16619369 -4.879415 -4.1994433
-4.6015391 1.1673646 -16.289312
1.8712661 4.0215635 -9.0229435
-3.8254769 3.0275776 -6.0782943
4.5775604 -1.2074504 0.97667217
-2.5853662 -0.37449372 -20
-4.9411664 -3.9947624 20
-5.2808104 -3.3485646 30
-1.9661922 -3.4398184 25.407871
-0.92205793 -4.544733 11.217251
0.073037677 4.418118 3.1300125
-1.2106317 -4.0906858 -14.096956
0.95233554 4.2057438 7.6412983
0.25663787 4.4575148 4.8816185
-5.8276796 -2.5691309 30
-0.67721224 -4.9255815 8.0060873
-2.1084275 -3.8655457 -9.5164957
-0.93483561 7.8140078 23.544294
-1.6258922 -4.656713 9.2454357
1.9881362 -3.7759006 -3.4101398
-2.0588474 7.5902319 28.786625
2.1602759 -4.4522009 9.3362675
-0.81310582 -4.5366888 18.739037
1.2713158 4.334507 16.856186
-3.4250653 -3.566797 13.611312
-4.2787848 2.4265161 18.0802
7.3732891 -1.5169169 29.727736
7.8763494 -0.62283993 24.518181
4.0822854 -1.6661283 -1.6075015
0.36629304 7.9271169 25.735786
4.7452736 1.0928733 -4.1399212
4.0453138 2.5507221 -8.6447735
-4.1440525 -2.1240153 6.9785624
-2.2820208 -4.3125434 16.855347
1.6604133 3.9422078 6.1895123
-3.8746183 -1.9368122 -18.824785
-4.626461 -0.48915538 8.4089155
-3.7416148 -2.862242 -0.40025228
3.4635396 -3.4866409 13.76792
6.4457932 4.476572 24.707737
4.8672786 0.303646 -19.105619
-6.0322442 -5.0952129 23.760735
1.996565 -3.4222827 26.539173
5.5929894 5.6986918 28.884897
-4.4260082 -2.2152162 -10.170776
-3.0219755 7.1224489 20.473246
-3.8366656 -2.2947588 -0.59949183
-4.2988257 -2.3419857 -4.8565636
-3.6437287 -6.7070861 22.493324
-1.3551587 4.7497034 7.2235479
-0.45489287 -4.6358519 -1.735873
-3.9620662 -1.0542059 29.413645
-3.4184396 -3.619956 -14.686141
-2.4852467 5.5269947 20
0.82002461 4.5849299 16.458221
7.5512228 0.99920684 20.609358
1.9102598 7.3699474 22.267681
-1.1187055 -4.3290901 -15.419265
0.28245601 3.9599671 24.999998
-1.317395 -1.7797141 25
-0.22108862 -4.3098378 6.9290209
-3.740449 -2.063868 15.711616
-3.8290613 -1.8392026 -15.779365
-2.0052423 -7.4754963 29.536556
-7.6643643 1.6906303 27.957907
0.47271463 7.6559124 20.883411
4.576067 1.4231887 -7.1813898
-1.9234297 7.6173892 24.969021
2.8462825 3.5799584 -12.109167
2.7763476 3.8122129 6.3830061
-4.6109381 0.24598444 -19.152283
-4.2325292 4.2796831 30
2.1878896 -7.5646372 27.149652
-3.329237 1.8205581 25
-3.6978099 -2.4680552 -12.605821
3.3178787 -2.6594214 26.702988
2.38833 0.31878322 25
-4.3151388 -2.4514997 13.475976
-4.7759347 -1.358134 10.327133
0.10794926 -1.2141826 25
-3.8136234 -3.0413387 4.8208818
4.4191322 2.8083289 20
-4.6896248 -1.3431591 16.220417
3.9620662 -1.7908185 25.41246
-3.6759927 6.9805889 25.424736
-6.817379 -1.0976472 20
-3.6003845 -3.2441649 1.2080419
-1.4498248 4.4754009 -8.4010506
-3.3525867 7.19662 24.89966
0.99931693 -3.998044 26.073389
3.2198653 2.9859669 -18.04553
3.5541654 2.7193766 -1.2896969
7.0648932 -3.1082773 21.879442
-2.0517192 3.7233686 -11.620454
0.23840141 -4.5522952 -18.277668
-1.2785665 7.4956636 21.168594
1.4301803 4.4617224 -12.105834
-3.9620662 1.2703531 28.006458
0.17621659 -0.11439444 25
3.5346971 -2.5342417 25.574135
-2.0253057 -3.8348267 -17.202446
-1.7689532 4.4217615 14.987327
0.61108673 4.8720651 17.239216
3.1638627 -3.3543808 16.411247
4.5783587 0.18534003 -4.4174018
-2.7271883 -3.434092 17.420004
0.30168465 -4.7877579 -0.86100388
-7.8029838 0.99239111 28.705734
-4.5082393 -0.71625578 -5.5473404
7.4107151 1.7054729 21.437792
6.5720587 -3.106246 20
-0.54996628 -7.8905926 26.33919
-1.4181511 -4.6094418 14.078768
-0.24419442 4.8744187 14.202453
-7.9547658 -0.22738232 22.836607
2.4904811 -4.0127459 -18.703156
4.2442131 -0.75490671 2.8898883
-7.7646842 -1.1828814 24.263035
-0.44194946 -4.3620181 2.5589769
-3.2928286 3.6441965 -5.9857192
-0.63844091 -4.2063956 29.941322
-3.9620662 -1.1229684 27.597008
4.4228134 2.0015414 -1.1700846
6.6026874 3.6912355 29.685532
-2.3549807 2.3447447 -20
5.7480583 -5.5215383 28.809763
3.9808853 6.7769294 27.229307
-2.939611 3.4824989 -4.2686896
4.6089563 1.6922941 -14.224165
4.8129063 6.2208147 25.436348
2.8464313 -0.41741341 25
-2.5575695 -3.0983865 26.597416
-0.73281896 -4.3817167 11.590316
4.2700801 1.1643456 -6.2029886
-3.7079818 2.9148827 -19.49415
3.3951735 3.0926754 -17.697985
4.4249187 1.7578707 18.279007
0.14574879 4.6206369 -5.488883
-0.15725672 3.9553008 25
4.9955859 0.019440215 15.698704
-2.3334317 3.8319662 18.21455
-7.9434109 0.28504542 26.960762
-1.8263466 4.5109749 -18.202599
-7.9159794 0.42315573 23.329729
-3.3644733 -3.6506925 9.1263714
7.1882434 3.1005068 29.421486
-4.4461346 2.1111286 15.126625
4.6020002 1.2206941 18.288765
1.1006799 -4.7367105 -1.5912361
4.7961998 0.42737985 17.535753
2.222424 -3.2918828 29.127659
0.20261726 -4.934576 -19.26948
4.1738658 0.89957559 5.895256
-0.85469633 -4.8850594 -18.087433
2.6351557 -3.589746 -3.4820645
-0.37383628 -4.9274235 10.771567
3.7567639 4.9256225 30
-5.2755923 -2.7168765 29.999998
-1.3617811 -4.6402073 0.55844593
-4.4971261 1.2583922 17.350445
-0.092954859 4.8768764 3.855947
-3.7394352 2.4339378 -19.733376
6.6039677 -4.2399902 25.565184
1.4896162 -4.5374131 -16.588892
0.78782594 -4.8701401 -9.9878521
-3.6523316 2.432559 -2.6085355
1.1372164 -1.500446 -20
1.5077825 -4.6754422 12.489027
4.599287 -0.24408419 11.640182
4.6598816 0.27750593 8.6328201
4.834568 -6.2062845 25.737961
4.8932362 0.46986479 9.3562431
2.7921748 4.0261774 7.1911678
1.2233585 4.3767514 1.5016105
3.3429289 3.4686708 -13.809768
-0.91785365 7.7612858 22.5
4.7328191 1.0855212 -5.648684
-1.0438118 7.7923489 25.407696
-2.2696033 3.2646439 27.61594
-2.0279107 4.4351521 -13.613387
1.1878018 4.3328199 1.5360031
-4.0437708 -1.9984964 -2.422389
2.5194583 -4.0949578 -8.9911795
-0.39942372 -4.7980604 9.6338911
3.2144854 -3.163723 -15.128761
-5.5835609 -5.7051406 27.866295
1.7659384 4.1536751 1.4650135
-3.8278568 -2.2429929 -17.119936
3.4653273 3.1901217 14.731825
1.1473608 5.1070766 30
-3.798955 -2.4554002 12.584854
-0.59661889 -4.8788543 -8.5541639
2.1584516 4.4482827 -2.1421037
-4.1409311 5.6659794 29.988844
1.6314678 4.6173811 -14.083014
-0.70921779 4.1655326 27.697449
5.0181808 0.76180911 30
-2.2147145 7.3094444 20.278055
-0.25156236 -4.8912611 1.5062497
-4.9653683 0.13467947 -17.989302
-0.3054229 -4.955956 19.826517
3.7824168 2.0045748 15.018431
-4.5714588 -1.8661114 17.777914
-5.7892408 5.4588118 23.586437
-1.3098439 -4.7118573 -17.463432
0.069008194 4.8733683 11.815956
7.3084536 3.1846042 24.565908
-1.447875 -4.0292225 6.9753532
-3.5025091 -3.2411988 -9.3356295
-4.0387621 1.7009461 -3.8864989
4.4764376 -0.40441251 2.7068448
-3.4745255 -2.8104866 -8.0421295
0.85840827 4.0793977 29.703411
4.0591488 1.8426986 19.351479
-4.856401 0.63155824 10.513426
1.973299 -4.4593859 4.742044
-6.9779329 -1.0331677 20
-3.5067911 2.9011199 3.6906552
4.4436631 -0.55943489 -1.501596
-2.6945076 3.7370269 7.6781073
5.4655366 5.7844515 25.103336
-7.6318388 0.5939244 22.430498
2.6833169 4.0241051 7.9899874
-3.1702492 -3.6941094 15.456882
2.1395469 -4.119482 -3.1109967
5.454639 5.7911916 28.987473
-1.5681609 4.7307253 -2.1672845
4.3232293 -2.3372087 8.3371706
-2.0439029 -4.2022409 -5.4058142
-2.01246 -3.4131055 28.125854
-3.4993579 3.4363251 -15.480518
-4.4396472 1.8727151 0.87800056
0.1868268 -4.8759909 -1.4026475
2.5976593 -4.1614304 -16.129059
2.5021901 1.1949245 -20
-1.32213 4.7697906 -6.7527962
4.3019466 2.3378599 -17.603952
-1.5309981 -0.47155881 25
-3.9620662 0.73825526 28.292452
-3.4263976 3.5252621 -16.692127
-0.38177225 4.8257132 9.6676702
-3.9773884 -6.7793274 26.549896
-4.472805 -6.4477577 28.852274
6.1788988 4.4341555 22.210257
-4.6173391 -1.2009345 -2.676784
-4.579957 -1.0212585 -13.138769
6.1582747 -4.9066734 24.058325
-5.7469406 5.5229244 27.18751
4.3390369 -1.4972116 30
-0.62748337 -4.6780138 -10.729561
-2.3195632 -6.7188005 29.954346
4.9215565 -0.3389135 -5.4557519
0.45887762 -4.3938785 -8.0814476
-0.54462856 4.2470169 -19.245146
4.0203609 2.4623923 -12.308258
4.1985116 -2.5205064 -15.674503
2.5542846 3.8186622 16.395733
3.8063514 -2.1678643 -10.655078
-3.0014856 -3.3205724 -17.324089
5.6783781 -5.6247597 23.792479
1.3803338 2.9638047 25
3.6485248 6.9990635 28.037752
4.4197474 0.79327047 -4.405272
-1.985782 -4.4556332 18.444067
-3.8958039 -0.47497946 25
-1.9783943 -4.1897235 5.1275167
-4.0371552 -2.1881924 -12.965219
-2.4290791 -4.241241 -6.1302834
7.2957463 3.2033706 25.390549
-4.6460238 -1.098984 9.3721962
-2.7694371 -4.0103803 3.4606643
3.5588231 2.500833 13.437878
-7.7245593 -0.12788537 20.688652
3.9620662 -1.7167515 26.919861
6.0727215 5.0346103 23.629688
0.21496636 4.5136967 -10.076717
1.1106398 3.6867247 -20
-5.7365513 2.7433043 30
-4.7771568 0.97872061 -11.857698
-1.7846745 -3.3995206 25
-4.2976565 6.5651283 24.078569
-4.8702135 -0.56228513 -18.215925
-7.4370708 2.8337724 26.704926
7.1748614 -3.3837652 27.70126
0.60885358 -4.8714938 0.013520107
4.1162724 2.4581783 -18.349773
0.78353804 -4.2555256 -16.89253
4.4018512 -0.99111378 -16.861464
-1.10796 -3.9353185 25.318836
-4.2589874 -2.6022902 30
-1.4972193 -4.0597906 11.35045
7.3853178 1.833176 20.672808
-3.0278649 -3.5312943 -18.427105
-6.8856173 -3.8178854 22.508638
3.6944494 -2.2247763 -12.202921
-2.6654885 -3.0360794 26.581427
-4.919158 0.61388522 19.9013
0.064193785 -4.4910588 4.1833839
-2.4900575 7.5045443 26.263538
3.2649307 2.689991 27.646658
3.4694545 3.4760618 15.874482
-1.8772867 4.1490712 -19.683104
0.9885689 7.8081331 29.13294
-1.6922222 -4.6013064 2.0252957
-4.4314651 1.0724974 3.3549998
4.821137 0.78258914 -11.594997
3.8596883 2.6793554 9.3239679
4.1777945 -1.3518963 -7.8310709
4.7011032 5.6513729 29.878216
-4.8342032 0.73103809 -4.4868445
-4.4365759 1.4935668 18.831793
-3.9620662 -2.2252533 29.444712
-2.0761752 -3.3776474 30
3.8919191 2.0828388 -9.117424
3.8784931 -2.0666945 8.6602583
-0.73804229 -7.6031199 20.600502
4.2555556 1.3084847 8.7949238
-3.3065693 -3.231092 3.563235
1.6864281 -4.1746297 -15.237649
-2.679338 -3.7876022 1.0952566
-4.5868931 6.3727503 29.186129
-7.5965834 0.77113128 21.62392
-5.710259 4.1618738 20
-3.8119032 -1.9167753 0.70758438
3.9342563 1.9798934 1.5815611
4.4760261 0.17616014 -6.254261
-0.66697651 -4.8827696 -8.9262447
0.5063079 4.8800287 11.279759
-4.5670485 1.907542 -6.0592289
4.1935802 -0.87590849 -15.215373
-4.7679439 -1.023054 13.155063
4.9355421 -0.13886701 -11.719365
4.4179626 1.524556 13.155268
-4.2043238 -2.056519 -8.0103436
-4.5663857 -1.9506392 2.7533994
-0.48401767 4.8033061 -8.3228207
4.4765353 -1.0874312 11.569838
0.49576777 4.5218835 15.422554
6.8985047 -3.7988441 23.59758
-2.8212507 -3.460295 -18.806282
4.2197742 1.3904548 1.577915
4.4953671 -0.72561365 -14.928706
4.8719182 -0.56426609 -8.4069481
-7.4154472 0.42026451 29.869629
7.4873753 -0.5976423 29.794804
0.81966066 -4.8862457 3.2010937
3.8835001 2.8306422 16.908882
4.235117 -2.3824797 -9.6285648
4.3482313 -0.4539203 4.2678499
-1.660791 -4.5183854 -18.920835
-1.6656517 -4.6120529 4.6013227
-3.04497 -7.3941584 25.048794
-0.12042809 4.6838846 -2.4821863
-3.0561275 -3.8042605 -16.028107
2.0196309 -3.9862175 -13.73999
1.7290188 4.523304 -3.1995678
-1.2480088 3.8544614 29.123146
-3.6208699 3.2891512 -15.21791
3.8402152 -1.7992903 10.263384
-1.6348639 -0.53416073 25
-6.5220623 -0.80039173 30
2.2914639 4.0392218 -4.1068974
-0.46069282 4.5311546 -5.5132866
0.42651758 -7.6651168 20.509209
6.7545319 3.572721 22.077042
-3.1891775 -7.3061337 28.669313
4.1423135 1.0378019 11.962831
-3.4144523 3.4382102 -5.1756711
4.1820087 -1.6405042 -18.368601
4.3699231 2.1932712 -12.39151
3.107866 -3.7335961 12.026899
-0.3721486 -7.9259486 25.388666
-3.5136657 -6.7939696 22.001907
-3.3374567 -3.6259739 -9.0464201
0.47668323 -4.8168793 9.6595097
-3.6186912 3.2876015 11.800356
0.30306864 4.7487912 10.384102
-4.5701423 1.8876921 5.6538095
4.3530774 0.29544336 -12.023735
-1.2548457 4.1701803 13.890062
6.9784718 1.9912959 20
3.9087253 2.3182964 25.829901
-4.5249462 -2.0783756 8.8607426
4.3710909 -0.60151976 -15.278584
-1.3022213 4.3815536 -14.87536
4.7328386 6.2744226 24.959637
-0.10058019 -4.4173059 -0.6303823
-2.5358713 4.078032 8.2434921
5.8054543 1.0367211 30
-4.3366604 0.94420552 17.206057
3.9620662 -1.8871522 26.091091
-1.7836903 -4.1871495 -13.890121
3.6512573 -3.1692207 -3.6982198
7.9935231 0.032559633 25.666985
-4.5052843 2.1468458 0.019785289
0.32435495 -4.5330033 7.2157717
4.5703568 -1.3828267 14.428821
-1.0237802 -4.7157903 -14.408123
3.6288371 -2.4442801 5.6435847
-4.5438652 -1.8114475 19.775911
-1.7157348 -4.4220953 7.2621484
-2.5310068 4.1955261 7.3327937
-6.7253108 4.0575271 27.442543
4.7822495 -0.59705108 11.465732
-3.6311283 -2.8056867 7.0296168
-3.3166857 3.6943624 -8.9974642
-3.1137695 2.7772641 28.985756
-4.0424738 1.6321279 -1.0486732
3.4352119 -2.6561623 10.144567
-2.3803432 4.1542444 0.0045327619
7.5635376 1.8026683 29.38382
-0.33493182 -4.3960238 5.6026182
-7.4129004 -2.955508 27.103739
3.5554528 2.7018304 -15.141994
3.2565799 -3.6087887 -5.2074332
-3.6548839 -6.9944835 22.911938
-3.6739454 6.9389253 22.5
-2.0436807 4.4258232 16.171215
4.6490469 -1.3617772 -14.1075
1.0634377 -4.7118807 5.8929429
-0.46352875 -1.584967 -20
2.4924319 -4.0265269 19.469217
3.2548018 7.2618766 23.942471
6.4296227 4.1953211 22.5
-1.8820411 -7.3755484 21.747574
6.2764206 4.7302656 25.726557
1.5071115 -7.7033587 29.090445
6.8462591 -2.0354431 20
-2.260972 3.7532203 -16.010796
-4.4743171 -0.34243211 30
-5.4394388 -5.802125 23.530388
-2.8303566 -3.9601958 18.473562
2.4545851 -3.5302217 -7.8249688
0.32559726 -4.5262537 16.229317
5.2372355 0.23151389 30
2.8538384 -7.4320936 27.150932
-4.0556397 -6.0100121 20
0.96881878 -4.4171295 0.88638383
2.3262436 -7.2568564 29.633648
2.560746 7.2405977 20.393055
-1.1214274 -4.8672705 -5.6043997
-0.98118877 4.8847184 17.351877
-3.3533175 -4.1682172 20
3.0878558 3.7231431 16.927269
-1.36754 -4.1080427 -3.5166512
4.2251635 6.61374 26.049242
6.6270113 -4.1847162 29.199211
4.3900814 -6.2083645 20.100353
-4.2837048 1.6681254 -4.1820955
-3.0232387 3.4366519 18.225796
-2.9507446 2.8713868 25.717031
-0.2704249 -7.5708313 29.678308
0.696545 -7.8614321 26.908356
0.31957543 7.9364161 26.332857
-3.9142199 -2.9125781 -16.402382
-2.6730618 3.2779243 -1.0808405
1.8567437 4.5298629 -1.8262595
4.9799685 0.088157393 9.7592258
-6.8093319 3.9318638 26.700401
3.924243 -1.7851198 -16.672115
-7.5772376 2.1278732 25.344427
-4.0214496 2.888453 20.025719
-2.8422616 -4.0980492 9.0524292
-2.4277556 -3.9750216 -16.855534
-7.5866165 -0.82129544 20.282375
0.5465101 -4.7455363 17.174835
4.5114455 1.352731 16.13343
-2.8765466 -4.5548768 20
-0.9195534 -2.3449244 25
0.13100067 4.8009129 -6.1393971
-4.4930706 2.1923947 8.5522709
-4.8987556 6.1635113 24.664051
4.6382146 -1.8124818 3.2473099
-1.5827041 4.1860671 -14.826029
0.042777196 -4.4708929 19.146694
-7.2222214 -2.6530116 20.379034
0.24327034 4.7377901 5.8979111
-2.1881185 -4.2259889 5.7394848
-5.7494588 5.5193977 28.937984
-2.3379736 -7.5346923 28.373493
-0.3462455 -4.8801599 16.724037
-4.2133813 -0.85616994 14.216789
1.2058599 -4.1908379 2.6507173
-2.4032731 -3.5963471 9.8053627
-2.3784783 -4.303596 19.928345
-3.2457666 -1.2945783 25
3.4283524 7.1460295 25.161928
-0.49269485 -4.5542278 5.6965199
6.5922928 -3.265317 29.878946
0.50726825 4.2821283 25.276836
0.61664855 4.8715553 -0.40230572
-3.3584681 -2.577601 8.2638226
-4.4242039 -2.2668006 -5.8951654
-2.1527338 3.3321187 28.595915
0.64829075 4.7381134 4.3818741
-3.1925433 3.7831001 -3.6657064
4.6367536 -1.6007967 17.12958
7.9182501 -0.41178152 23.666456
4.534656 -5.8544846 29.852074
2.4448214 -3.5617778 -9.4079065
2.0181479 -3.7876179 -15.414637
1.5918174 4.4371233 -14.506935
-3.5838428 2.6208632 -2.4098992
5.3696513 5.8485174 25.47163
0.56591904 -4.4198174 1.1750109
2.58039 -4.1646132 15.687199
4.0563321 -1.9248421 11.619144
4.9660597 0.14980224 -17.195475
1.21219 -4.0675926 -12.449021
-7.5653062 -0.92837006 22.194326
-3.3975608 -3.5567968 0.24050897
3.7173097 -2.4661891 7.3763289
0.82813597 4.3316369 15.309992
-3.2573299 7.2605395 28.199713
-1.7612827 4.5609155 15.969828
-0.94193685 -0.88144374 -20
-3.1890783 -3.3542426 8.0488768
-0.34891224 -6.7498779 20
-4.1489029 6.6645107 27.644547
1.4109998 0.018727809 25
4.4819827 -0.8029778 -7.4571447
-1.6237521 -4.5710135 -0.1797927
7.9532523 -0.23547225 28.930237
-3.5647833 2.5793226 5.1016021
-3.7593918 2.3258531 -8.3939705
3.8024635 3.1142256 -2.1189933
-4.5459666 2.050735 -3.3989747
2.7419498 -4.0883975 -2.717108
-5.1684861 -5.6882391 21.048923
-2.4911582 3.4916956 -13.065538
7.4207773 2.9136429 24.875284
4.4892993 -1.8315136 8.4279728
3.3039281 3.6693523 5.0479941
-1.0036361 4.8678107 3.8051531
2.6196318 3.9749675 -14.548936
-5.7272549 0.42017168 30
-4.8767891 -0.72516614 14.784269
6.3586431 -4.1651707 20.213167
-3.2936542 -3.6333549 10.913474
-3.6196589 3.1069973 0.81504232
4.8010473 -1.2667241 -19.034922
-3.4599416 3.1694436 4.6426296
-2.4496617 3.9688911 3.6566725
0.98301095 -4.1145525 19.045372
4.1570754 -1.3470421 11.716699
-4.7444162 -1.1584097 10.713277
4.0112638 -6.4614592 20.072998
4.1256809 -1.2557611 -1.6520121
0.69263828 -4.1751051 25.661661
3.0542097 6.0957766 20
2.6322756 -3.6956432 3.9679117
2.7430973 -7.454216 25.627232
0.27459693 -4.8795638 12.440202
3.9786203 1.6181066 8.9993019
4.1266432 2.6460848 17.57373
-4.5519056 1.9430661 7.3176689
-3.2503023 3.7400777 -16.837868
7.320683 -0.57386053 29.892241
0.82361257 -4.8393612 -11.372574
-4.2633166 -1.8060924 3.9459929
-1.3640305 -4.109777 -11.010784
-2.2299838 6.2009649 30
2.5766101 -3.9437952 -16.568823
4.8345056 0.62343264 20
-4.0325627 2.766258 8.8049736
1.7592216 3.8749051 9.1613436
7.3900228 3.0611539 28.161673
-4.883296 0.50498301 -16.945469
3.4559722 -3.0979555 5.9659548
1.2084291 -4.3592949 -6.2732339
-0.64534938 4.2273083 15.250552
-3.2443171 3.511003 -17.237206
3.4564636 2.8045125 -15.12683
-2.6827662 4.116879 5.3254671
-4.2548604 2.4363463 6.9137559
-4.0963945 -1.4578104 -9.8606319
7.9909053 0.045717496 23.708878
7.9435563 0.28372976 26.171579
3.8717761 2.0533185 17.902803
0.073460877 -4.332943 14.437627
6.118854 -4.9659719 25.419462
0.57520711 -4.551403 -12.250219
-3.0752416 -0.059104692 -20
-3.3673201 -2.7545714 17.21097
-4.3309183 -2.2881179 -4.1549554
4.5309663 0.70939976 10.6486
4.1449151 2.2952063 -7.7966862
-4.6739736 0.90815383 18.931839
0.11906829 -4.4433951 5.3446727
-2.9707351 3.6170759 -5.8350954
-5.3111253 2.923754 20
3.5291262 -2.3761187 11.760361
-4.0199633 1.5694797 2.0946841
4.3562226 -3.3689866 30
-6.0045643 -5.1370082 25.377899
-2.9328341 -3.827332 -19.31324
6.0518303 -5.0657721 23.205923
0.035793222 -7.992867 28.447359
3.6139054 -2.9287481 15.91561
-3.9620662 -0.13486171 25.093185
-2.5595663 -3.0972338 26.158903
-0.16314963 -4.3190937 12.939198
-4.5503125 1.9737258 -11.008688
-7.8562379 0.72412962 24.024227
2.0832009 4.4107065 14.364885
-1.8437263 -3.8944082 -5.1647749
3.0157146 2.7646761 -20
-3.9067593 -2.9370711 13.254883
3.9109049 -2.9146388 12.175403
6.9062176 -3.7874017 24.51284
-4.6625519 -6.3213038 25.811047
0.58324248 4.8487678 -0.19785117
4.2501612 -1.8181984 0.0049026683
2.1356282 -4.4858141 9.54426
-2.2520728 4.1556749 0.70341092
3.7849526 1.894851 -16.523521
-3.0076296 3.6895032 7.6170516
6.7172022 4.0700493 23.106514
2.7364519 -2.3740628 -20
4.1443653 1.0779197 11.893394
-2.9351988 3.6630511 -2.8606243
-1.0833395 -3.9495335 27.581936
2.9474764 2.3210812 -20
4.8890009 0.58885717 -2.4470441
3.9032481 -2.9282229 13.688026
6.6950974 -1.2308366 30
7.4280353 2.8753295 23.088182
7.9505768 0.24843858 24.955139
4.5872312 0.069419086 -10.828211
3.0819721 -3.4569392 5.4404125
0.91453445 4.8740411 0.8979373
-3.9457154 -2.1808965 -15.587281
3.4293125 3.4204721 0.45080248
4.1009989 -2.0746167 19.514164
-5.8887634 5.3096414 22.530935
2.3228509 3.028594 25
4.2459965 0.41953266 -0.13283251
6.1579618 4.9071531 24.073891
-2.5620203 7.2403617 20.082949
3.2331641 -3.1681135 11.88567
-4.2795677 -0.66300833 -12.765181
-2.8018961 -4.0544863 4.3460231
5.7457128 5.0824227 22.493629
-6.6119776 -4.2275643 26.86108
-4.2776003 1.7676247 14.266854
-0.4923597 4.8930273 20.178949
3.9620662 0.43112528 25.735413
-7.9198208 -0.40304345 26.40827
4.942451 -0.25171846 5.0048552
0.45010829 -4.6711597 -6.7693396
-1.6140561 4.6361642 1.2772918
2.6675854 -3.2858024 7.1541538
-2.7650127 4.0403543 -9.1589851
3.0960543 3.0575998 -10.511325
-3.5366797 2.5330968 29.303478
-0.94411916 -4.7150464 -6.8785534
-3.1443789 3.3751421 18.654884
4.2561593 1.2626281 -19.439579
5.0725899 -5.752286 22.453411
0.53847122 1.4368751 25
-2.508049 -5.3982153 30
6.2338624 -4.7938447 27.878531
5.3804569 -5.2659378 29.757874
-1.3318861 -7.4849892 21.253082
6.5589499 4.1583204 22.5
1.7687734 3.5537977 27.04254
1.7424905 7.4033561 20.134911
4.6375628 -1.062847 -8.8248014
-3.046068 -3.1584454 11.222931
-0.30886596 -4.2920971 9.9354029
3.4824567 -6.8148479 21.473007
-4.6922007 0.43233413 -17.099697
4.9146662 6.1523604 28.333942
-4.3910441 -2.3175554 -2.7325189
-3.1671133 -3.1562037 5.4714804
-1.022902 -4.362762 -10.909769
-0.96778154 7.4010057 20
-4.3593664 -2.0985162 -8.6120224
7.5442028 -1.0344143 21.939238
-5.9529986 4.8537278 22.500002
-1.7760906 -3.8501139 12.914888
6.5881481 4.2631502 27.231066
-4.7703228 -0.059123252 -18.563858
-5.4248629 -5.5169382 21.252964
-5.1785765 1.6563693 20
4.6154466 1.6559906 -8.2562485
3.6787851 2.2751441 -10.426163
-0.51745462 -6.2329521 20
4.1523361 1.0383866 17.963226
2.1387057 -3.6410487 7.1280646
-3.3692651 -0.37584171 -20
-6.2407169 4.7838845 26.641909
-4.568428 -0.51249504 4.9039373
3.255213 2.9446862 -19.351219
0.074711859 4.6564126 -9.9718561
3.7918372 2.1819866 15.078928
-4.8617516 -0.60573006 -11.854782
6.3697391 3.0689278 29.976646
1.18653 -4.2319226 11.6613
3.7959538 -3.0644882 4.8930941
2.0008931 -4.4638124 3.5722752
4.6897535 -1.1756405 15.241025
0.85086036 3.091186 -20
-3.8401294 2.5821023 -17.267664
-1.4368905 -4.1633205 -17.186302
-4.2666674 2.4704845 1.4416909
-1.072263 -4.2192116 14.361842
3.0717793 3.7940171 -8.5389776
2.2219737 4.3998575 -18.705837
-4.0817194 1.4487692 -5.5071745
-2.1527753 -0.6987232 25
-1.9953573 4.4518375 1.0691516
4.572494 -1.3427112 -15.545861
2.6117148 7.3429151 29.404753
-4.3418593 -2.1586864 -13.878806
-4.444221 -5.3884592 20
4.5165329 -0.90656066 4.5855379
0.79161119 4.8818359 -6.4891424
-3.1836588 3.8388529 -4.967751
4.8382893 0.70376152 4.9529309
2.3911562 -4.1732798 16.505322
4.5559955 -0.67354167 2.61377
4.5727096 1.8766304 -17.002396
-4.234159 -1.4697375 18.548092
2.0471697 -4.2969847 -11.250153
2.1758823 -7.5671673 23.468882
-2.2225952 -7.5577769 26.246958
-4.2101989 0.80820304 -5.3671455
-0.12317976 4.5038819 25.083755
-3.0633919 3.6286101 0.71554977
1.4362124 -4.7601824 7.8150225
0.17619577 4.8747334 14.765671
-4.4761944 -0.65321296 4.946557
2.7308507 4.089879 5.0375447
4.1392879 -2.6365733 8.0812187
5.3021927 3.7287743 29.999998
6.4078727 -4.5327277 28.942682
-1.0854799 4.2799082 -8.5875921
-4.1356535 -2.618453 -3.3135955
0.69653559 -7.2677231 29.90716
0.75279993 -7.8502302 25.349693
7.1831884 0.88536012 29.90918
4.4502511 -2.2342062 17.219917
-0.097190648 -7.9806557 27.049719
6.5721545 0.76327908 30
-1.4809546 -4.5695672 6.5644517
0.75555193 4.8707719 -1.7222065
-0.27854976 -4.8101783 -12.121389
-0.48271608 5.6596889 30
3.6007891 3.0255265 4.8563433
-5.800746 5.2628689 29.469206
4.0102201 2.797477 0.86010402
-4.7555389 -1.0657248 -16.463501
-1.3094852 3.8189681 29.986755
-3.9989748 2.8594003 -1.879028
7.1008224 1.2927619 20
1.8998594 4.3324232 -4.6810493
0.86253476 -4.8846178 12.515749
0.50244129 0.82022208 25
4.3901105 2.317102 9.8590269
-3.7105322 -3.1694243 -15.244652
1.9787471 3.2865496 25
0.24945936 -4.3374729 13.089577
-4.8868136 0.85949922 19.873329
-4.2232313 -0.73862326 -15.79172
3.8578835 -6.859077 25.58695
0.83545351 4.8736529 0.84900993
3.261579 -2.9912329 -10.680078
2.9984536 3.3805642 -7.2531357
-3.0772827 -3.9059427 1.7093973
-2.8650246 4.0270681 -6.5090957
1.7883489 4.5511389 5.7135611
-2.6557362 3.8667617 19.631239
-0.13726991 4.8390384 -17.336132
2.6262655 -3.3112297 -4.8483248
-4.2917085 -1.607872 -16.007401
7.7086983 0.20761427 20.780485
3.737231 6.9396472 28.73465
-1.9168339 -4.3812752 -12.975859
-2.2986758 3.5562019 -7.1263366
1.1239367 2.436691 25
-0.44480163 -6.7036605 30
-7.9129519 0.43847156 23.752621
4.1907725 2.0252845 7.241395
2.9426703 -2.9167476 -19.963854
-3.0409677 -3.3810978 -17.363443
3.380115 6.8832397 22.48287
0.33071595 4.3840609 29.73283
0.58909929 1.7438791 -20
1.8706503 7.3778334 22.488968
-4.6497345 -1.3913447 19.217903
1.0087272 4.6071596 6.4765348
0.62928575 4.8303499 -1.6887522
-1.7674921 -3.8649738 5.3879056
-7.1721878 3.3886623 25.02352
-4.7888927 1.2075734 30
-4.6895118 -0.64739007 11.481531
4.684967 -0.88743705 12.971286
-3.4706035 -2.6531878 3.6909299
-7.4024959 2.7354083 29.366684
-3.5387568 7.0721478 23.859173
1.8414792 -3.9715266 -18.299776
2.3382781 -4.3756342 2.1997802
-2.3961759 3.5574512 -10.068139
-3.3474154 3.6332848 -5.0601931
-1.8567961 -3.5029781 27.146891
7.5809221 2.1066134 23.053219
-1.5133017 4.0130348 4.8822589
1.599874 -4.6426978 -2.4054272
-2.0871699 -3.6885943 -11.111064
-1.7022591 -3.8787763 -5.1142197
-7.6846809 -0.32834086 20.420605
1.4814285 7.705286 22.712847
0.34727886 -7.930872 23.5965
-3.9620662 0.68855792 28.041782
7.4415236 2.8086309 24.357653
-4.2508984 0.22867204 17.137657
-2.305984 3.5824971 -4.140924
1.073596 -4.7344999 9.6904211
0.24542713 -4.8759184 -6.9405289
3.3761468 -3.5850458 -15.957777
-2.6162121 -4.1544108 -10.114988
1.7770159 -4.5242815 3.671526
4.7320361 -1.3511341 9.3718472
-7.8673697 0.66807467 26.517715
4.6425438 -0.84707052 6.1578064
-3.3781743 2.6861534 3.5366657
-3.1652098 3.1116009 -17.730406
-3.9885869 2.824574 10.220934
0.01383087 4.5609713 9.0228901
7.026969 -1.0918533 20
2.8801615 -3.4278727 -13.972362
1.0533998 -4.7377596 -4.5974355
-0.50651121 4.6366072 -2.9732614
1.6083467 -7.6799679 27.424854
-3.5560634 -2.8228645 9.6020756
4.5807581 -3.4283032 20
2.3790855 -3.9415419 -18.631952
1.8430958 -4.5659566 10.915009
-3.7199445 6.9513016 26.351936
-0.36955804 4.7756729 12.635615
-4.1888132 -6.4331241 29.627823
-0.82488418 -4.6083956 -13.748865
-1.1886297 -4.328723 -10.910189
-4.9336481 0.29145873 13.156277
-0.97274005 1.6268817 25
-4.4557791 1.4564641 -5.744782
5.0888033 0.16082141 20
1.5858519 -4.6752515 8.9884586
4.8007946 -2.8328593 20
2.0384865 3.798141 -17.915688
-2.7357116 2.9955361 28.210415
2.8035097 -3.9977999 4.5422478
3.6845152 -2.7316222 18.990396
-2.0177984 7.5983944 28.938139
-7.1374741 -3.4403276 26.068785
-4.5444198 1.7139903 -4.3514304
4.0455213 2.0423946 -10.683374
-3.9546511 2.5003853 17.287437
0.21448365 4.7017937 10.417697
-4.4710426 -1.1021389 5.4317541
6.0760012 4.5881228 20.795029
0.81229323 -4.1875887 -3.431407
-4.5310192 2.0421042 10.023814
-5.69735 5.1577711 22.5
-4.4850736 0.082936257 3.7688451
0.9239713 -7.4278727 29.823397
2.3236372 -3.5332084 -3.3570254
-3.606988 3.042707 15.132476
-0.89209747 -7.8225002 22.519674
-1.2917607 4.2063804 -17.579407
2.187865 -7.5647659 24.823242
-3.3594785 7.192193 27.023424
5.4042087 2.4614165 20
-2.6431131 4.2007842 20.078598
-3.8923559 2.3277471 27.097134
1.7663606 -4.3497009 -4.5970645
-1.3871003 -4.0961442 9.9800625
4.2510614 0.30837727 10.379458
3.8082013 -4.914669 30
3.1388831 -2.7627647 25.527138
-2.4761488 -3.7428703 -11.295195
-6.5723033 4.2870626 23.912971
-1.1661733 -3.9017093 28.768545
-1.4040594 4.7319789 -15.625936
-0.43422472 -4.8744636 -12.017221
-4.7682338 -1.0065411 -16.593855
0.35483876 4.3701339 29.844429
-4.2273798 0.60956085 -11.379211
-1.0932235 -4.2000771 -19.87179
1.3239772 -4.7718458 18.493191
-6.0165148 5.1188655 24.295963
-1.3152077 4.5385985 0.020454563
-1.8862321 -3.4859831 26.151058
-2.6663618 -3.7396123 -18.893963
2.750252 3.9934425 14.729838
0.91334581 1.5537919 25
7.7120671 -1.4503481 26.7992
-0.20076837 -4.4590864 29.26783
7.257658 -2.4747231 21.840469
1.4777654 7.7059126 28.318176
-4.3328857 -0.35826966 -9.9437046
0.23126034 7.6523771 20
-3.9620662 -1.8928472 26.41869
-0.61434984 4.2088957 -4.2238874
7.0465984 3.5757368 28.369946
1.1571733 2.3490911 25
-3.8751509 2.9629507 -16.537117
1.7781086 -4.8803091 30
-4.0134463 2.9010088 20
2.4430325 -3.588932 11.710437
3.7789524 -2.3932207 26.466421
-3.1297522 2.9144845 -17.518538
-3.0925679 3.3342168 0.24446413
-4.4515586 -0.49888325 2.008774
4.4302354 0.12574114 5.7612467
1.9114783 -4.3464847 -18.056417
4.9422054 -6.1352081 29.19297
3.4611051 -3.1595883 -3.6016746
2.1495717 -3.7383962 -12.318195
0.576657 -4.8765259 -11.529885
-6.8977795 3.7995615 25.973034
2.4998817 -4.6085253 20
3.2374165 3.7041812 -6.3349018
1.3869114 -4.5117865 11.869736
-4.6971855 0.7357145 -19.441544
-2.4272974 3.9982371 0.088839032
-4.749855 -0.69631588 -2.7128816
3.0601406 -3.3312364 -6.492137
-3.4909956 3.2584045 0.090570614
4.3437881 -0.16880147 13.434075
-3.5014157 2.5534565 27.925819
3.2677209 -2.7710903 11.754372
1.451973 -3.1456306 25
0.11514478 7.9770489 23.901766
-7.1143923 3.4749436 26.00914
4.3648186 -2.3433514 0.56605422
-2.3497782 -4.2769227 -4.5770407
-1.6177529 3.9784188 -10.107876
-3.1224775 -2.9539497 5.3625917
0.053100098 4.7798333 10.375591
-4.3721642 -2.0650582 -10.113337
-7.5128393 -2.4522738 27.288214
2.2124307 -3.2976525 29.63064
3.6082304 2.4112289 -7.4166427
-4.4379606 -6.1763172 21.101492
4.4192791 -0.15798838 -19.788567
-3.6086473 -3.6848307 30
-3.8484144 -3.0916305 2.9798989
6.1563196 -4.9099207 28.255714
-1.1724923 -4.4195223 15.738415
2.3051195 7.5414085 25.231209
-2.5102086 -6.106194 20
-0.68972671 -1.6666763 25
-2.2435415 4.3798523 -3.3253832
4.3923664 -6.50179 23.353165
-7.3791642 0.16945182 20
3.878402 2.8838389 11.624785
0.53716671 -4.8728533 -1.1554486
4.8241901 -6.2128959 28.116236
4.7622538 -4.7413893 30
0.5009951 -4.3477206 9.9308758
-5.629108 -3.1756341 20
2.4014347 4.7917871 20
0.229708 4.8775129 -7.7298813
4.5089545 2.159282 17.273853
2.0101881 4.0657878 6.3496013
4.1480846 2.6192594 17.311718
-1.3913636 -4.0444608 -14.106894
-2.9109299 4.0148778 16.419254
-0.63195503 3.6194334 -20
0.75363022 -4.7757912 -9.8403749
4.9499269 0.21959578 18.522404
4.7778425 0.70137852 -11.698488
2.789495 -3.9222584 10.492908
-5.9012518 5.2916088 25.432701
-6.5059991 4.3867064 25.850826
6.0008316 1.9985135 20
-4.5012031 1.5422565 6.897089
2.9924884 -3.0670581 14.724799
4.999022 0.0043153302 -1.1894654
-1.7939241 4.3145962 -11.363409
3.9186397 -2.9062648 18.640713
1.3249288 -4.390924 -18.217468
-0.083922386 -7.1501093 20
-3.6687942 -3.2090421 7.7016215
-4.6224451 -1.2404834 -16.183798
4.8152695 0.40189588 -16.233175
0.31636095 -4.5984316 -0.2202602
4.3888531 0.61510706 -10.70887
-1.7325023 -2.5588632 25
6.0314331 -4.9364805 22.5
2.1007543 -5.6166916 20
-4.5208979 1.2860497 6.2495527
2.7863603 3.4338312 15.201483
7.7110987 0.19554853 21.389126
-3.0434239 3.1784878 -19.811192
4.493329 2.1794603 15.665587
0.41560772 4.2087297 -2.7670693
3.0021834 -3.9441276 -16.42205
-3.8250115 -2.3212838 -0.89110184
-4.7975931 -0.2142842 13.807235
4.7120509 -6.2882185 23.557289
4.2349005 -6.312067 22.139462
4.5356865 -0.57671988 -8.9408321
6.1881084 -1.3249238 30
-6.1307359 -4.9485049 27.584194
-0.13661806 4.4961228 28.71006
3.5273218 3.3993993 -15.622507
0.85408008 -4.5201087 18.834173
-3.3789129 2.6522839 -12.975807
-4.3479528 0.90166342 -11.292982
-4.6109285 0.95443821 -2.6932065
-4.6704874 -0.49247524 16.852982
-4.7435532 -1.1296526 -12.064084
0.61563778 -4.873342 16.983711
6.4396915 4.4637117 29.216595
-7.357585 -3.1101751 26.945984
6.3309913 -4.2990246 22.5
3.5408945 3.370841 0.48239487
4.7977686 0.87429714 -14.095531
7.2169557 3.3214061 25.505404
0.15874732 -4.9618092 1.9811924
-1.230356 -4.3825555 2.2475002
1.2546554 4.4685144 -6.0542288
1.2882543 -2.8974683 -20
-0.14941508 -4.4887352 29.485716
4.372756 0.60540539 -7.7078514
-4.3085818 -0.68092614 -12.743629
-3.4249444 3.0304909 0.6738432
-2.0939236 5.8909397 30
2.8136437 4.0864158 -2.1091468
-2.879683 -3.2982283 9.7358456
-4.1034875 1.1109748 -9.9334831
-1.2877774 -4.5033741 -9.8356295
-1.6706607 4.8816185 20
-4.4472809 -2.2371252 11.966898
-4.9306974 -0.30029082 7.1582246
-0.18089461 -6.7687664 20
-3.5103846 -2.401793 14.290232
3.294415 -6.8598323 29.67622
1.5537152 -4.0908718 16.174736
